# 3D point list with one line of data per point:
#   POINT3D_ID, X, Y, Z, R, G, B, ERROR, TRACK[] as (IMAGE_ID, POINT2D_IDX)
# Number of points: 420, mean track length: 2.8433490884537473
2323 0.80024377950216641 1.6219972316328559 4.270368257958352 158 172 103 1.0257282930140099 5 363 23 512
4302 1.7908766270655281 -0.66927009629968626 4.8382137602497988 110 125 42 1.6553573173176301 22 2501 23 5667
9389 -2.7737399048758227 1.977146553951995 3.9804509348970352 142 109 104 0.90495620112964714 24 7933 25 1762 26 3983
7405 0.24943131373025723 -0.58859114395224332 4.015533331528089 108 0 13 0.66512494779402775 6 2703 8 6805
2318 2.1432093297562487 1.7833926114271261 4.0520618898770655 142 109 102 1.6530854682470679 22 456 5 427 4 510
4301 0.26638849037938489 0.69820439296509207 3.0982701776360533 41 112 158 0.90116502783313868 3 4678 23 5650
9388 -2.9305618430042828 -0.50470544972309495 4.9169232015322102 122 88 86 0.98309214351589169 24 2101 25 1760 26 2708
4299 -0.12693502476724369 1.4154987151792651 3.8373295766776132 66 16 12 1.1474663299323462 3 4364 21 7137 20 8365 1 1776 23 5642 7 7160
9386 -2.9378906432017855 0.1445098172451092 4.6786089037460981 165 134 131 0.91198335953662157 24 2025 25 1750 26 1701 9 4652
8856 0.71396825921232476 -0.66726057682915629 4.6073939764616565 36 62 75 2.1260415292494934 9 1101 11 820 10 944
3769 -0.32628386818592231 1.7492786336644899 4.0402222635066565 56 78 6 0.75875002506803302 22 1820 3 973
3764 0.98119769435876791 1.4618512499293448 4.130649066861416 88 109 32 1.1273727862240004 4 1753 22 1956 3 907
3761 2.9295025128544347 -4.2447512057128121 6.2620426742573088 96 58 37 1.0455535948368415 32 493 3 863 23 684 21 738 31 338
8848 0.82972940635664272 0.91194061441724605 3.8955451357133288 83 76 32 1.6224792985001761 9 183 11 407 10 596
8846 1.9044725840747889 0.091737102124542627 4.634319164013446 164 196 157 2.0979192177422377 9 288 11 371
3759 2.9314644284171139 -5.0620510812099129 6.5824208291580169 132 95 70 1.4240648755294949 32 452 3 845 23 1126
8840 1.8804420608962082 -0.35092275482407226 4.8020261123298944 172 203 169 1.5334412149709724 9 290 11 362
3753 0.62211869823217081 -3.637229064938992 5.997922784056918 111 77 42 2.5006952706298291 4 10557 3 695 23 8072 2 7557 32 3368
3752 0.51982126071910095 -3.6414460543682665 6.0002040675090003 128 91 58 1.9082068895994226 4 3554 3 693 23 8058
8838 0.72632493952201993 -0.37851515468140146 4.8097576394766355 111 134 88 1.4630214460349225 9 576 11 344 10 983
3751 -0.081560640153953604 -0.53226908732318379 3.9881248776481524 88 0 6 1.2582651658309536 22 856 3 680 23 565 2 1478 4 735 20 804 21 580
8837 0.76809322957199788 -0.50101208113759688 4.856932395036643 102 143 102 1.5450542440779038 9 551 11 343 10 542
3750 -0.0082983714572827834 -0.26251683466587994 3.8050558908213525 0 0 0 0.8260879982061291 4 702 32 1076
3748 0.63842848425680765 2.0226012436002541 2.8678494066139777 116 135 56 0.77874618596434431 22 345 3 627
8830 0.70844507662479661 -0.70202347135257603 4.5658462651002356 132 128 65 0.66521053821840592 9 182 11 230 10 336
3743 2.7944582659095172 -5.2480516857788642 6.6176736859255598 128 90 67 1.8160422146498973 32 312 3 517 23 723
8824 -4.4881829389988281 2.903510052223329 3.6993550072539123 117 80 71 1.8351131369783347 9 82 11 74
3737 -0.47146697140897942 1.1437031733146454 3.7154122402463643 123 151 77 2.5954246846808564 32 2697 3 439
3736 -0.14484054337237837 1.3478102946574191 3.6919474999860991 101 69 46 1.4064088400487664 3 432 2 271 22 231 20 244 1 199 7 245 23 230 4 5295
8823 0.34564970026493291 0.21796497659875674 3.638265083887279 7 84 156 1.8439446089030704 9 27 10 27
8821 0.52457990895628859 -0.25939489129480481 4.2944005976547706 108 48 11 1.6395977112380855 9 11 11 19 10 53
3734 -0.097152233198838478 1.3377469471542018 3.69248157528392 93 51 27 1.1469495898356441 4 2587 3 429 23 205 20 243 21 201
8816 0.82086817550875202 0.93151641823450748 3.8459351232854737 39 72 79 0.92819174200264698 11 2733 9 2757 6 4235
3729 0.097635374088008764 -0.31596527322194046 3.8019488677092732 0 0 0 0.77747777457575218 4 335 32 382
8815 0.85001641326699984 0.83210238671695558 3.8409335799460513 34 67 72 0.60480153687401983 8 1295 11 2186
3728 -0.59179837623184928 -0.53655802153264198 4.6292426616194087 27 73 62 0.84601681315332766 22 315 3 410
3724 0.6916668864257195 1.7258075921617175 4.0275676474064008 84 99 30 1.150600663234167 22 470 3 373 21 339
8811 0.69280918114041856 -0.82631096945001492 4.7500197430665203 4 47 65 2.2311830960765491 8 684 9 1089 6 450 7 1226
3723 0.64188125423306075 1.8486022889566422 3.8925221484037178 104 120 49 0.70002759449428897 5 425 3 369
8810 0.73687981486163112 -0.63540269479849498 4.5159677010893375 14 51 69 2.1252791347720912 8 902 9 932 11 1050
3718 -0.048944573802764235 2.1174134744401321 4.6828231700611553 126 147 70 2.9185613846867042 22 469 3 357
3709 2.7524779321254691 -5.1956838065155875 6.6393826554274815 70 35 16 2.0050360363419277 3 213 23 257 32 141 2 404
8796 0.82735176958630019 1.0280765401083674 3.8905340107837483 3 31 42 0.11724888892827268 8 7927 9 9996
3705 0.16684295868929583 1.3625359115473752 3.7734025484954574 79 44 14 0.71719926663540001 23 109 2 166 3 156 20 121 21 159 1 112 7 128 6 143 19 364
3694 0.21126098328883464 1.2755116603768448 3.6015203800804034 80 50 13 1.6895626117530944 22 50 3 65 23 15 2 32 20 37 21 39 1 19 19 57
3687 2.1860164877314454 1.0028899789119643 4.3079568299792106 75 59 56 2.5763376661612183 32 617 22 241 4 344 33 206
8773 0.80942433236294953 0.86035956346248921 4.1292648914668328 21 99 129 1.2548315966330705 8 5480 9 5798 11 5493
3686 2.236413980335926 0.4373109647764658 4.5212026737278466 115 82 79 1.7177512902816958 4 6839 32 6049 5 2800 33 3310 22 8178
3685 2.1876623707667013 0.51810093974345306 4.4892905844101074 84 66 64 1.5245456576383827 4 205 32 336 5 169 22 179 33 142
8768 0.82455213171410302 0.89052093646334984 3.8272546258542737 41 75 77 0.033181268742796401 8 5650 9 5597
3681 2.1924845877308639 0.43513280596052223 4.5179632857564425 96 81 76 2.0563790317499664 4 3352 33 6812 32 2670 22 8174
3679 2.1488885710241701 0.59322581829379084 4.4721285957542536 155 125 118 2.4998479068900394 4 3335 32 2806 33 3279 22 2997
8766 -0.42866903062663342 1.0229146396529207 3.9683394321708456 0 0 0 0.47067059222303942 17 7718 18 7989
8765 0.82421729884659678 1.0298432114929492 3.9315370472634896 99 119 125 0.072667053822140476 8 5474 9 5515
3678 2.1508307605720249 1.2768381752802058 4.1986469101481232 145 112 108 2.7539461145934379 4 1769 32 1881 33 2188 22 1972
3676 2.0355005261031724 0.044561101910627739 4.6739181633654168 87 73 71 1.6134596642410766 4 11899 33 2839 32 6119 22 3195
8763 0.82084541168955771 0.96827826838148967 3.9941003800671773 37 22 17 0.2763266009576637 8 5487 9 5480 11 4439
3672 2.1937117860952222 0.85976620224694689 4.3547453163055518 174 141 135 1.55136798396427 4 3388 32 2965 33 3405 22 2905
8757 0.81307110521138604 0.91920832027562671 4.0273847904143345 117 112 63 2.1772242179283139 8 5522 9 3839 11 3677
3670 2.1580223654798503 0.50639929506520365 4.4933129722905818 89 75 72 1.7345141026596393 4 5666 33 5261 32 2872 22 8149
8720 0.82013041372482309 0.99628877950681705 4.097445892633572 32 78 101 0.87398931964799353 8 1258 9 1532 11 2515 10 2867
3633 1.8617963338140293 0.48941422104129562 4.0691363244302181 115 93 71 0.23226485382767881 33 6689 5 5237
8719 0.81807496237701116 0.96188163070231636 4.1108468888052023 32 77 96 0.86245155982888644 6 1662 8 1204 9 1531 11 2516
3632 1.860233923046116 0.63820685615012962 4.03529467468839 111 118 63 0.5672692696186763 33 10595 5 5170
3615 0.57036359847460694 -3.6203789745683257 5.9840508221092215 126 84 59 1.6476436890116652 32 7999 23 2994 2 7555
3987 2.8317877742129949 -4.5572328506527127 6.3956000352110323 107 69 48 1.1091383130474604 32 3385 3 7124 23 8154
9074 2.2000574395974901 0.94535689734104966 4.3670107333482209 130 111 107 0.43929573452920379 8 680 24 2310 25 2314 26 3393
8701 0.8159365695190135 0.93441882291575518 4.0239498210322173 22 32 26 0.51368731045557992 8 832 9 940 11 1871
3614 1.3351915064367814 -3.6136235692670167 6.0083602610828999 0 0 0 2.4551328840058515 32 8067 33 1792
8698 0.81162305118052702 0.92780507534826617 3.9272416203449856 102 96 38 1.019003797382237 8 1211 9 927
3611 0.14859441019885111 1.9494060561768094 3.9634076220590044 94 109 44 2.6289672527309085 22 4402 5 2936
8694 0.5048407602884788 0.16326792714604704 4.1548922017772387 144 67 51 0.47899758112157736 9 896 11 1185 8 607
3607 0.94824345851751712 1.4113650424599133 4.1577342853739916 91 110 44 1.654916652813776 4 5266 5 1986
3587 1.7783462144573881 -2.4440083630372555 5.6118173702747569 173 188 129 2.6770775483266949 4 1246 5 901
8662 2.3374605714732577 -0.63636041049462544 4.9497748958263239 108 87 84 0.34324946337617812 30 7047 29 9853
3575 1.7511712932487007 -3.0704780532291496 5.822128375380899 170 185 126 1.7455021416363738 4 1148 5 550
8661 2.7092938099172916 -0.57897404546025744 4.9344856181370487 113 92 89 1.3218565558292146 30 6822 29 9792 16 5286
3574 1.7268790308176432 -3.0884747642076675 5.9048262564040748 172 194 122 1.1881542197955659 22 1210 5 549
8651 3.027880866024903 1.3506155330524661 4.21035831644138 162 133 127 0.34358101431325866 15 3114 30 4379 29 7663
3564 1.9610705739410432 0.87731015015632341 4.363931838370088 182 200 138 0.24278848545998222 4 590 5 475
3545 0.49607736977901301 -0.50414384686049485 3.4373514700019099 65 43 28 1.0748939862964439 33 27 5 10
8632 3.1616887091375401 -0.079831402633694662 4.7620196885949388 107 81 80 0.55144846637202938 30 5823 29 6403
3543 0.83511914128870957 0.64404380549886253 3.9336725402786401 105 129 70 0.46135275521155855 4 5749 22 2357 33 680
8630 2.0788522025696241 -0.44518941505949872 4.8894065809586902 147 123 121 0.65478523028985236 30 3769 29 6213 15 5427
8627 2.7311735602337275 -0.48053072317843809 4.8970842144316853 142 122 115 1.1389307878732735 16 5230 30 4351 29 6102
3540 2.22223849528309 0.49841343649694647 4.4974783440399557 183 152 147 1.6008118178604147 4 2046 5 1503 33 2210 22 2363 32 2211
3538 1.9629410615808072 -0.10197278402987402 4.7290915573290553 140 113 104 0.96364233872026317 22 6518 5 9968 3 8540
8625 2.7927269792564644 -0.34570248351461663 4.8463515484286326 150 126 124 0.78994676101569039 16 5247 30 4392 29 6066
8580 3.7110429594087728 2.7360466298506001 3.6920224684567327 137 104 95 0.42389962564476874 16 1721 30 942 29 2025
3493 -0.076654796941881528 1.647496193831568 3.6334939277970149 0 0 0 2.2684966146258567 4 12788 33 6977
8574 7.1861014178335871 5.2743948836275854 13.568205894372246 167 193 154 0.19148366061600622 16 1640 29 1674
3487 0.091303125032412488 1.6339815517131595 4.0730214435738068 86 94 37 0.27516083771396038 4 12722 5 8674
3485 0.09876939256864041 1.6914701455220573 4.0580954868583934 71 80 23 2.6685563590004717 4 5586 5 8658
8571 3.4849228928286573 2.7546282172037895 3.6765153561746802 140 107 100 1.104608538365228 16 965 30 399 29 926
3484 -0.049118099322646012 1.8839330838440156 4.4751720120441076 84 95 37 3.2761517323807841 22 4456 5 8657
3432 -0.3762045303644308 -0.01379273754062588 4.6816029743538943 56 65 10 1.9249701292799486 4 11682 5 7725
8519 3.5917794584757701 0.14531129595366443 4.655966767463851 178 150 136 0.91087211749260089 16 8276 17 9372 30 8198 29 8332
3422 -0.53152635301918005 -3.5519343773677248 5.8562653154615685 175 181 135 2.3660208370275759 33 4468 5 7186
8509 3.0463068980122019 -0.03125381705549455 4.7253835395972441 97 67 57 0.86973090983016788 17 6774 30 7457 29 7971 16 6894 15 6343
3420 -0.59051276317819301 -3.6043362392319631 6.0388030659349079 177 180 135 2.5890250335874252 32 8034 5 7170 3 2784
8507 3.0903171776508755 0.5019400435496244 4.5216346394561286 169 140 126 0.60468118336675802 17 3937 30 7446 29 8094
3414 0.15027126686735767 1.5367048757381792 3.8569740893310662 66 76 16 2.8067673425817441 33 10762 5 7054
8501 2.9696289491430279 -0.12031062825054449 4.7617011384854102 187 157 146 0.76921679984448044 18 2553 30 7396 29 7515 15 6136
3386 -0.59202313163479803 -1.7675821925091644 5.3249394900114462 100 122 50 0.19404567973798179 4 13597 5 5643
3385 0.85743738482968068 -0.46643332147956534 4.8569455387910541 91 111 39 1.3622406170875303 4 6201 5 5511
3384 -0.33435160349886661 0.60185284485577084 3.8811468442334269 120 142 77 0.59770254139380297 4 11437 22 8428 5 5460
8471 3.0133240342746479 1.8321208449907087 4.0350125455945927 165 138 118 1.0621723294978174 17 6806 30 6854 29 8049
3382 0.75591918062532293 -0.76687341804890163 2.9853921803670831 149 165 99 3.1140120479628002 33 5060 5 5370
8469 2.7293891467579194 0.24487523934603905 4.6256252071498976 157 129 115 0.52688641776479128 17 5523 30 6833 29 7493
3368 1.9524935173972939 0.27450525508956242 4.5786052924491436 137 116 95 0.34635786028841831 4 5784 5 4943
8455 2.586891261709976 0.20626065064785251 4.6472945345404311 124 96 82 1.4193976102782315 17 6716 30 6646 29 9911
3358 0.20395057343362319 0.63352895348659855 2.9740252086629213 105 231 255 2.6170184793859717 33 2181 5 4666
3331 -0.38519994141025699 1.3654257419174705 3.8900531512925518 0 0 0 0.18791189533715072 32 5572 33 3351
8418 3.3344789291926107 0.76365442791250249 4.4320466960067275 101 72 58 1.1166978715308786 17 7317 30 5758 29 7645
3325 0.48121166474494997 -3.6618005298360212 6.0373332517497591 136 112 86 1.4693418231152047 4 3555 5 3261 3 2781
8412 3.2450086882072204 1.3951677317019286 4.1938222335421305 96 65 47 0.53791222015806583 17 7378 30 5675 29 6944
3311 1.6682542569232068 -0.44781927435100277 4.8227458915932173 196 218 151 2.17563063194816 22 6001 5 2915
3309 0.37428668470689824 1.6127406413639949 4.0678160636079044 68 77 20 1.4402874708617772 22 4371 5 2886
8396 6.4025301082672472 0.58143234007039923 4.4623248345396522 133 101 90 0.26177885432879577 18 6679 30 5315
3308 -1.8791070691475225 -2.523861618881337 5.5922859793576309 109 131 59 0.85760737366403095 4 7341 5 2830 22 5310
8395 5.6134744793241245 0.08577513965357246 4.6467487106327834 82 48 34 1.7204356712239699 17 4708 18 1296 30 5256
3680 2.2293856281177091 0.64970579053312716 4.4487038809832207 164 134 124 1.8190343990554283 4 348 33 146 5 261 22 312 32 332
8394 4.418212857491997 0.81193679052188727 4.408607022916696 98 72 59 1.3169561277169421 17 10887 18 5128 30 5112
3307 -0.11810399778392147 2.3683846114944909 4.4889888183624009 90 110 41 0.74429654546348345 4 1881 5 2818
3301 0.27781331826046424 -3.8259517932721474 6.0520924803533882 114 81 66 1.0753649307499658 22 3466 5 2634
8388 4.8405339121292075 0.72724406870793168 4.4285938444684536 152 125 114 1.0364391002504283 17 6068 30 5058 29 9028
3282 0.74259899999738244 -1.0188071564058678 4.5225607023800283 100 133 62 2.2032796046507204 22 7077 5 2029 3 9287
8369 2.5246387469977414 0.1211230064841108 4.6806852644424293 128 100 86 0.97174028926511502 17 5437 30 4419 29 7432
3280 -0.28166518884098252 0.98942030968060224 3.7565737443089957 152 65 88 1.0748968001173069 4 2936 5 2015
8367 2.6347370574511522 1.1017517001981567 4.3124618237422965 122 94 80 1.1361037165395536 17 6694 30 4413 29 7407
3279 1.9745300176508913 0.9699897951729104 4.3504919943926765 93 104 47 0.73373512372741079 33 2137 5 2008
8366 2.5543335304304913 0.15937854362371554 4.6656201101981347 157 131 116 0.98104400502146571 17 5433 30 4410 29 5261
3278 1.9820561364708702 0.93052021862766832 4.3073555900496086 121 103 83 1.6196655073874837 4 2938 22 8025 5 2006
8365 2.6413638679564193 0.96157208121503224 4.3644710286803257 170 143 129 0.51767457077512202 17 4146 30 4409 29 3851
3277 -0.12563427594311405 0.65541880605524938 3.2582425123504852 66 145 186 1.1408435614170946 32 2251 3 8401 5 2004
8364 2.6574695593406568 0.67680482871251035 4.4708419128966517 134 111 95 0.79650627936007379 17 5396 30 4408 29 8179
7990 0.34225680822976895 0.15366238463580201 3.6071181963433712 52 96 120 0.75469697041267958 17 9466 16 9676
2903 -1.0092978625036273 2.1496104780189906 3.884480243406486 148 165 95 0.15753067446371993 4 12009 22 7814
3276 -2.206735359302491 1.7337028674591344 6.6168114151490727 174 200 137 2.4268462763802208 33 2287 5 2000
8363 2.6948145501358938 1.4102282342755426 4.1961707026824913 135 108 91 0.48068157258482297 17 5390 30 4405 29 6456
3275 -2.5266664802221848 1.4832119930143743 5.9249426693028342 146 162 100 1.9922395371564452 33 3624 5 1998
8362 2.6770338194633956 1.1760939666155499 4.284920806630117 123 96 82 0.9195931552841432 17 4162 30 4403 29 3136
3270 1.9758772924828243 0.76044787140876657 4.3798447593920136 127 103 83 0.89212035416728064 4 4360 5 1951 3 8320
8357 2.5718368873857012 -1.6264303731863756 5.3260190858168892 150 124 111 0.49468513025719374 17 3957 30 4360
3266 -0.37039146961562008 1.5887276281913929 4.0702300712480062 86 108 43 0.51552542921800226 32 5637 3 1953
8353 2.1098967498380881 -0.37907937843516404 4.8661712615759125 148 121 110 0.62263432146869235 17 5738 30 4316 29 3773
8351 2.3680761737696594 2.269623468226269 3.8810400585111915 157 130 113 0.5398503438704555 17 5680 30 4312 29 6971
3264 -1.8395146432487 -1.9183233640451207 5.3706958039021568 106 127 58 0.49005492902483927 4 4383 5 1859
8350 2.1431858294718014 -0.24256733505216749 4.8190988225805622 159 131 119 1.0489367832584546 18 4898 30 4306 29 6053
3263 -1.928854742407655 -1.9267986684339813 5.3807335615417324 163 184 115 1.3476462838855849 3 8684 22 5680 23 13268 4 2442
3634 0.83376770412100443 -0.27585801541005567 4.5166993569465275 100 120 48 3.3831132934661605 4 14300 5 5299
8721 0.81625886519713053 0.87714244268476349 4.0879528463546242 8 36 48 1.2446593315134156 8 844 9 1550 11 2504
8348 2.2483594230794077 0.50366929781046466 4.5347801121619797 167 138 124 0.84851428050849043 17 2965 30 4296 29 5260 15 3231
3261 1.7734911410835459 -1.4490217997965307 4.9478578862851448 0 0 0 2.9154932042658528 4 2317 33 2753
8346 2.6637188597361385 1.8848901422187336 4.0105313520230883 102 73 57 0.83321245331254534 17 10222 30 4277 29 7718
3259 -1.8319404769729668 -1.8456680288155636 5.3432824016536591 171 194 124 0.10494117092149284 4 4274 5 1705
3257 2.0026392269823807 1.2083002380628165 4.2309377972857094 123 101 80 1.0844872092142122 4 5375 5 1697
8344 2.2855032226635936 -0.24968939555473596 4.8135384684587894 124 96 84 0.86381156042951834 17 5676 30 4267 29 6003 15 7865
3253 1.8703672243384171 1.4521453360794083 3.6759093560680332 100 118 56 1.4567222451329949 33 3150 5 1651
8340 3.3919406979194289 0.48782903539341094 4.5296599755626827 169 140 126 0.80311060100169707 17 7500 30 4206 29 7733 15 4424
2876 0.56676609859959115 0.68766615075807347 3.3291639678237157 97 123 141 1.4404006980182817 4 6003 3 8229 22 7988
7963 -0.43864268104384735 1.0305140850100827 3.9823062364961199 143 120 48 0.85337429843143875 17 7951 16 6138
3249 1.8384303084725071 -0.20558166931811339 6.1693792691463596 122 144 72 2.834197796878045 33 2556 5 1577
8336 3.51257813020487 0.33378024632053088 4.5849335671796156 163 134 120 0.92137340714681992 17 4435 30 4158 29 7783
7961 -0.43189939660489773 0.98806756021334607 3.9999197078109452 130 118 56 0.61908752395687516 17 7946 16 6133
2874 0.12040860470010117 0.96607772980344386 3.2932478644047918 179 46 75 1.8897486983326566 4 12519 22 7983 3 4118
3247 0.043717547078569279 -0.2490129998324831 3.907614684340698 0 0 0 2.2130336033693849 32 2286 33 2774
8334 3.5076990016243541 -0.029303181548894768 4.7187375621413619 127 99 85 0.60214271197264546 17 4433 30 4149 29 7435
3246 0.019066336467292156 -0.23656093193827574 3.9036679075990359 0 0 0 2.2504328244777145 32 2289 33 1236 4 1954
8333 3.2036595916501316 1.42637482513383 4.1860542734079553 157 124 105 0.32793572320368575 17 4013 30 4133 29 4173
7958 -0.55697008875743625 -0.76464872329762124 4.546290438316837 93 114 96 1.2385541008573941 17 7937 16 6031
2871 -1.7496938541309692 0.70978494087795785 4.4013807510146759 88 107 43 1.0905015483166538 4 5671 22 7954 3 4252 20 1863 19 1536 7 7836 18 1046
3244 1.8998501677710486 -0.72108442075939982 4.9433617354452624 146 129 111 1.231147697330043 4 14820 5 1554
8331 3.120856806191183 0.60855441393460319 4.4907812995772218 121 89 76 0.61632434846037965 17 3939 30 4126 29 7393
2866 2.0281217523436634 1.965928462476717 3.902097933445106 130 107 88 1.9593047125526339 4 5557 22 7847 5 2819
7953 0.065977728285113446 0.0024256806973012336 3.9074201468203777 232 87 110 0.11816881925090961 17 6464 16 5405
3239 1.3603683229334349 0.22490169622272216 4.5975222355686682 76 96 27 0.02372523886914827 4 2150 5 1532
8326 3.0364276029507495 0.19660236931182939 4.6449197023181545 115 87 76 0.64232517658914923 17 8876 30 4093 29 7523
3610 0.59465337517377126 0.35714346379166539 3.5119084172748485 65 84 28 2.2123197489971465 33 2254 5 2745
8697 0.50282885412908962 0.04157702992135634 4.1338525164854332 152 119 70 1.3934452509068382 6 451 9 900 11 5399
8324 3.4325370339729715 2.3246122090453971 3.84189648487019 91 57 45 1.1725888407137661 17 4475 30 4086 29 7112 16 3226
3237 1.9818594428970053 0.71262965059508698 4.4156618595444002 132 107 87 0.92444686639995632 4 2116 5 1522 33 4786
8322 3.3897113400934016 1.6170558949155216 4.1128247473782489 145 112 93 1.1311412871745434 17 7356 30 4067 29 6896
3235 2.4813152231516402 3.7621381386612067 5.7650474461899845 86 111 45 3.1014457273393834 22 7738 5 1406
8321 3.153626488169087 0.076185524921487738 4.6870902913957355 145 117 105 0.09380028303943648 17 5456 30 4054 29 7548
3234 2.0473855148165523 2.3420635612922247 3.809147666735555 95 101 57 1.3401430395057379 22 397 5 1384 4 1817
8320 3.1219636138537337 -0.0099316139052519938 4.7193120420617403 133 103 92 0.2608287710892308 17 6764 30 4045 29 7564
3233 1.3913989936899382 -3.7985119517981309 6.178364486778265 116 84 66 0.75405264448187115 4 5058 32 3302 5 1334
3605 0.67670205852558907 -0.1411220559853795 5.0165849199349957 51 67 18 2.3302867181832112 4 14253 5 1978
8319 3.3582927007323704 1.9511788694403984 3.9879118097095105 135 102 83 0.31104130901807919 17 7593 30 4043 29 7207
3232 1.5928693394152103 -3.697603578752334 6.0639067171814469 146 162 97 1.3259997773737136 5 1325 33 190 3 657
3602 -1.8235492148441601 -1.5892174490538478 5.2525514949108212 97 118 49 1.215970203983042 4 13455 5 1764
8689 0.83779121128607625 1.019329198938264 3.8482028301599867 6 34 38 0.69708162836043286 8 630 9 691 11 1190
8316 2.169088785241347 2.1498804613923261 3.9296896767602587 83 56 39 0.55512372354627104 17 1712 30 3792 29 7591
3229 1.3972267298250221 -3.1698339835744433 4.6306604376790084 155 178 108 1.3706259532044931 33 886 5 1262
8314 2.069027137049011 -0.42907716145401242 4.8849512058348123 127 101 88 1.1604245506586881 17 5704 30 3781 29 5392
3227 2.1561140977305939 -3.0996383747739378 5.9087052787774939 145 126 120 1.0561861843193008 4 4995 32 3101 5 1229
8313 1.9815603180984205 -1.1577436910617496 5.1368466996757496 105 81 69 0.60093506264673091 17 535 30 3780
3226 1.8182542145014085 0.19321958062778727 4.5903559059897168 109 132 55 0.8515583274462063 4 2151 5 1192 22 1599
3221 1.8564041612282696 -1.3331434382343992 5.1316078946170967 157 143 130 1.200279813177179 4 13332 5 1127
8308 -1.2007383560621527 1.0406274527907995 4.3269268085128054 103 129 66 0.55356996143129777 17 1725 30 3305
3220 1.8537906288681403 -1.2501597445613921 5.1613454613997058 115 126 68 1.3237688321009276 4 2359 5 1125
8307 4.45265361469413 1.4381792996259 4.1676499887064038 127 94 79 1.0703456043396418 17 7245 30 3207 29 3671
3217 1.6236590998176639 -1.9635335871388768 4.6189758835397337 121 132 73 2.4859037322965891 33 1682 5 1108
3215 -1.7457013911759371 -1.5749904622989452 5.2350815976963867 191 214 146 0.47350920094977722 4 4081 5 1092
8302 4.1006648775021892 2.4227329866915848 3.8082215283533434 126 93 76 0.68774622040676137 17 9123 30 3126 29 7235
3586 1.8066668782257043 -1.831460516974603 5.3759886315657068 176 194 130 2.6522527978866304 4 1986 5 890
8673 2.2145639491281548 -0.30267787123841833 4.874149772258221 93 69 67 0.043801987478208848 30 635 29 342
8300 4.2097321736238413 2.7224404761364664 3.6892731729611574 109 80 69 2.0834579319832085 17 4507 30 3114 29 7520
3213 -1.9126308613158263 -2.9755735513033716 5.7579188689155094 109 132 62 1.9258031289829152 4 4850 5 1071
3211 -1.9341913154225949 -3.2622740755355628 5.8871365138220382 126 149 81 0.60185767364474363 4 10812 5 1062
8298 3.9395331814603578 1.3203713630618825 4.2162303886450685 128 99 83 0.88177439902432198 17 10999 30 3085 29 7200 15 6063
3583 0.66478204905686133 0.02276577325822679 4.4260517447886043 159 178 115 1.6391740707358298 32 623 5 835
8297 4.439380114081497 2.8425775969270699 3.6540922947417842 100 72 60 0.74964652510946284 17 7295 30 3074 29 3897
3210 1.3078932426257932 -2.4062845108768087 3.6191074096137799 115 136 61 0.63526784397060476 33 1520 5 1044
3582 -0.010345557872842463 1.9288045583123805 3.9800659814746635 122 140 73 3.0272610392217851 22 238 5 767
8669 2.8955966510915125 -0.31951438372739766 4.8368691607053487 138 113 109 0.83469657395883645 16 5746 30 6787 29 10052
8296 4.3617202608339021 2.281453822567546 3.8589578134752935 115 82 69 1.0140101902857659 17 7267 30 3072 29 8388
3209 -1.9071281282902068 -2.8658527340714293 5.7240197500294858 106 129 57 0.9744475246738491 4 7189 5 1037
3208 -1.8917174175475884 -2.6919642288497911 5.6505212180119582 116 138 65 0.63419339978391531 4 8179 5 1032 22 5873
8295 4.4657302671866788 2.8623002498897492 3.64202184038782 75 47 36 0.49528446347771754 17 4260 30 3067 29 6694
8291 4.3061961708150349 2.44742042694083 3.8045403892923795 128 95 80 0.84804677204213164 17 9207 30 3036 29 8408
3204 1.9079056407165771 -0.20839942442106307 4.7516361501035913 97 105 37 1.3881326275257668 3 2259 20 2575 22 1637
8289 5.7219036218100756 0.6072613723334187 4.4753769093020397 78 48 38 0.37751359803883949 17 2528 18 8243 30 3025
3202 0.5497664421785825 -0.29340978770812587 4.375330588147837 0 0 0 2.7370421935176843 4 1957 33 2886
8283 4.2065951776924795 -1.5684027705795913 5.2840735992266952 107 77 66 0.17357240773900917 17 7240 30 2899
3196 1.8045641234000509 -1.9428738714507539 5.4202311349897974 180 195 134 1.8253053359900069 4 1990 5 881
3189 0.64888845105104698 -0.19064161755606851 4.4995594797248355 0 0 0 2.700875819133242 4 715 33 5081
8276 4.8681414920875046 1.0976764330155111 4.293449220266476 142 114 102 2.0616021019408337 17 4361 30 2174 29 8943 15 5937
8275 4.8031937824352706 1.2163929478300599 4.249178158183966 149 117 104 0.89205486237843135 17 4237 30 2170 29 3643
3188 -0.25067160061206395 0.2735886543519922 4.0107450311920969 155 166 109 0.31963687952650488 22 3110 5 830
8274 4.8453232590444042 0.50489385588807434 4.5177657630930304 152 124 112 1.2380955431041154 18 7031 30 2128 17 4356
3187 0.022679260717588495 0.18316011089688031 3.4850834047984955 42 150 204 2.4302166414456328 33 5253 5 827 22 2637
3559 0.12027831578334193 2.0448931810963233 4.0872444151117975 120 136 71 2.5140355652059116 33 645 5 423
8646 2.5601086429183528 0.44817090908724522 4.5502523739211016 64 43 40 1.0425748621272559 15 6348 30 6699 29 7494
8273 4.3740773544914147 2.556888619414369 3.755075322924458 108 79 65 1.3796405888814405 17 4521 30 2095 29 3874
3186 0.8904429022151632 0.73308991885317265 3.947929390051113 71 104 47 2.6513039718345746 5 816 3 4110 22 3002
9884 -2.9055195189243155 0.79859205558944579 4.4274458038927405 116 77 72 0.56932497983410746 9 7259 25 5186 26 3913
2813 0.5381712018460546 -0.70263321749799423 3.068754892123573 205 157 46 0.2837413819619431 3 2747 4 6410
7900 4.3604415581548368 1.5268943860974589 1.766274073677043 67 69 64 0.45568743309457949 17 2676 16 3376 15 4550
3185 -1.9249665099600661 -3.784347306520182 6.1265826768991731 141 119 106 1.2216471622924143 4 2653 32 870 5 797
8272 4.3736104916807781 2.4928604857398176 3.7756051350218685 99 67 54 0.32665199625188035 17 8209 30 2092 29 3868
9882 -3.0170654595445598 2.31907084268079 3.8527750541314707 98 63 61 2.2526949926781419 9 7375 25 5333 26 3741
2811 2.010197738965664 -1.5401613156946872 5.2894614574476533 184 159 155 0.68796049948400673 33 3878 22 6974
7898 3.515568148861675 1.8272239035733218 4.0340732989507337 150 107 73 1.2905605381230507 17 3016 16 3190 30 975 29 7194
3184 0.30450532968731275 1.7500334626018743 3.8936481007919435 0 0 0 2.6219432401148106 4 511 33 1110
8271 4.5815763195577999 2.7045013210426805 3.703083385475499 110 82 70 0.83432845991996174 17 4723 30 2066 29 6342
8267 4.4004583732847662 2.5381869697593933 3.7653465064300629 65 37 26 1.2700814322204885 17 7787 30 2060 29 3863
3180 0.76746891224959468 -0.22198438655118086 4.726353918314441 137 155 87 0.92318971250653592 22 6477 5 756
9877 2.0585762880602299 -0.2314343496028729 4.8001424601754676 150 131 127 1.5150143501742044 25 2288 26 3101 10 590
2806 -1.9626933456935511 -1.8051612135819497 5.334213327728782 148 167 101 0.86185318725232385 4 9597 22 6853 23 12643
7893 4.3944414593609702 1.2317145835926304 2.3196462114286995 114 110 101 0.4076028003282573 17 2464 16 3120 15 3480
3179 1.7661818827727715 -3.2770799789805216 5.9053405805183381 119 109 83 0.10856702911466645 4 2465 5 725
8266 4.3402279088615128 0.6364310863085344 4.4708454043965107 143 115 104 1.8071167765554248 18 2327 30 2059 29 7860 17 3391
9872 -5.0767416773226204 2.7152506436210166 3.6976662257729682 131 93 87 1.4256865141323007 9 7726 25 1942 26 2864
2801 -1.8800240801813937 -1.6300622852782785 5.2529662499474519 192 211 147 0.29305940332128644 4 13531 22 6724
7888 4.4161074021968885 1.3737245498206248 1.8621395391937086 102 104 99 0.47344841028415235 17 3832 16 2926 15 6891
3174 1.7258922110617374 -3.5746460209441593 6.0149914432565863 159 170 110 1.7082616077278601 4 2242 5 694
8261 4.214526390260227 0.19945394018415225 4.6233084452864386 100 68 57 1.0532251917469051 17 4531 18 158 30 2040
3546 0.81964526749983413 -3.4441328490494381 5.0358615785043934 131 92 77 0.89336321656127504 33 49 5 23
8633 2.4615381098143989 1.866659628500271 4.0192740916339753 85 54 49 0.54523798803418122 16 4375 29 6405
8260 4.4892684034614865 2.838120782241115 3.6527228417110873 102 73 59 0.73917027905626831 17 4296 30 2029 29 3933
3173 1.7194395052683793 -3.675111029311442 6.0769085867270531 155 166 103 1.5242289817090562 4 2269 5 691
3542 2.2408667003363592 0.59354052192578077 4.4714034329942294 137 107 102 2.1598453678058331 4 3326 5 1537 33 2277 22 2333 32 2814
8256 4.5350079776310261 1.1171767789518048 4.2890930907215212 111 79 66 0.97035380591291009 17 4255 30 1969 29 3609
3169 1.7492398648882539 -3.5501555343818003 5.9954624587129715 116 94 66 0.37118927854276862 4 1175 5 657
3541 2.0914710339830878 0.68572451854094774 4.4322905388765133 123 94 89 2.1930563920221671 4 11364 32 9200 5 5107 33 6664 22 8164
8255 5.9196117888158319 0.64990586000615547 4.4374611911921686 125 97 85 1.5621791358457748 18 987 30 1916 17 2354
3168 0.22857987928722603 -3.4731829266194203 5.9817257852741088 156 178 113 0.3842380152262353 4 2268 5 651
8254 5.6517399812026587 -1.3245521355098686 5.1845381765778997 68 39 31 0.082682775267383657 17 7684 30 1912
3167 1.7272070994236439 -3.5218384249779868 5.986407375162865 159 171 107 1.7377140033602245 4 2164 5 645
3166 1.7635602221958182 -2.8407225564225285 5.7472667340514247 171 185 126 1.8530063586234671 4 1295 5 637
8253 2.3062994346270242 1.9955223486940443 3.9821934774001484 132 100 84 1.1970524473470672 17 2964 30 1866 29 4033
8250 2.225751041760069 0.080599572496033778 4.6986453159838524 109 81 69 1.799983865618437 17 2963 30 1849 29 2847 15 4359
3163 1.7573170382244856 -2.9556708451647511 5.7853127688227142 169 185 120 1.5699337713250388 4 1136 5 624
7876 4.3488328443856625 1.3854842484131709 2.454714606848428 152 149 140 0.43646920019173457 17 2485 16 2685 15 2329
2789 -0.38091783084579139 -0.051968710757457758 4.678023642757986 101 104 49 1.0782155350149676 4 3199 22 6550
3162 1.755903403106996 -3.0128795013235088 5.8047545916968248 163 180 115 1.9382294550183443 4 1120 5 616
8249 2.0784037652745315 -0.39851918944873987 4.8783012110900321 120 93 82 1.597129215341804 17 4046 30 1837 29 5445
8245 2.6565827787005176 2.0363364875604577 3.9485405096866724 121 92 76 0.1912826630639417 30 1816 29 4169
3158 1.8393335974531013 -1.2786523799559626 5.1681928011164766 165 180 123 0.7259335569225881 4 667 5 534
3157 1.7704929623375367 -2.6123255942175403 5.6731479076735187 173 189 127 2.3208338316083035 4 1357 5 533
8244 2.6174448849342711 1.4333003037926837 4.189359654459075 122 94 80 0.78482545756247379 17 2877 30 1814 29 7774
3156 1.8441404045894165 -1.1687532813525432 5.0946413469440799 180 196 134 1.3725108825710972 22 2238 5 530
8243 2.6708802320361262 1.9252358274421659 4.0049504397727098 103 74 58 0.33940809363944785 17 4118 30 1813 29 4280
3153 1.7579491003910619 -2.8964841788384939 5.7626450576002695 171 188 122 1.8679740204410722 4 1315 5 526
8240 2.4966969583631857 2.0466226935221821 3.9624790098931233 133 104 88 0.79740687458225368 17 4105 30 1793 29 4289
7861 4.5790349544618376 1.0138152813911059 2.0562433637385937 142 144 141 0.66109881899017509 17 1944 16 2014 15 5126
3147 1.7550243014068083 0.24443258719579711 3.7954392062211291 127 112 83 2.4282484128407695 33 2209 5 494
8234 3.2675762573343143 0.35115597132355619 4.5838270499108189 165 138 121 0.8861501908252688 17 3990 30 1691 29 3107
9843 -3.0222057114426488 2.3724530194598339 3.8342999772570696 78 43 41 1.7576248240352976 25 689 26 821 11 2048
2772 2.0926088111857148 0.22657972745506219 4.620295724672796 169 140 135 0.26230072185973313 32 9511 22 6328
7859 4.3635956573904959 1.7077891289080971 2.2041626156255676 113 107 95 0.81367920663480342 17 1940 16 1998 15 3490
3145 1.959875657016398 0.51724295535067755 4.4910501894917569 118 108 72 0.30971362913318323 4 630 5 489
8232 3.1104952220110773 -0.28766912869567796 4.8237865593485481 126 98 86 0.16782068766986946 30 1679 29 3393
8231 3.1712676768141637 0.50769050118551207 4.5391249394410327 166 139 122 0.92190185690411786 18 7069 30 1678 29 3083
3144 -0.52669758727212079 0.64047283431596769 4.391138313681572 96 118 55 1.7423917954517532 4 398 33 622 5 488
7481 0.73767876258626586 -0.99448188456668729 4.4865519338068331 159 180 100 2.2774774725137137 7 8755 6 3057
2394 1.9963461451068572 1.4789656036280712 4.1323865671471554 186 191 142 0.91020395656012243 4 1668 22 1029 5 844
2767 2.1687440313796911 -0.085612598165604806 4.7248247881635148 155 127 123 1.1137890945468469 33 5295 22 6291 4 6503
7854 4.3960129017800087 1.2825942506983274 1.7502462803819687 155 161 160 1.5127719572870326 17 2673 16 1899 15 2658
3140 1.9813557562998099 0.84905417759764013 4.3693877670833769 127 111 86 0.44369789018473393 4 588 5 476
8227 3.5464067196569675 0.67057438575363015 4.4603035184783923 171 144 127 0.98947265422030695 17 4002 30 1656 29 4265 15 4179
7479 0.20430582723223933 -0.50809673584594983 2.9884092090837844 0 0 0 0.27875449309303935 7 1429 23 8179
2392 2.0702796056791222 1.815659406630644 3.9958795510074414 155 121 111 0.00069377321421046627 33 1119 22 1008
2765 -0.69680178424956329 -0.76090980123362473 4.9264042077121477 36 53 2 0.60286940391723132 4 6160 22 6206
7852 4.3748634521089276 1.2394410153229354 1.6151588162028274 166 171 174 0.55443176229675217 17 1863 16 1875 15 2630
3138 2.0135659657812131 1.8739664078766405 3.9956957123199119 171 189 129 1.1343052606323274 4 501 22 234 5 424
8225 3.6297575854213475 1.3204777789304742 4.2165706255973232 142 111 93 1.2238698286663576 17 4426 30 1654 29 3724
8223 3.4900839129837578 0.045153336169603396 4.6967115195369011 156 127 113 0.53671677396752138 17 3997 30 1652 29 1918
3136 2.0345973273955651 1.9007893468684081 3.9760091988096145 96 79 54 1.4652304460741086 4 493 22 364 5 419
8222 3.2971984188540966 0.39070916935397382 4.5685007246253901 134 106 92 0.36862093458639583 17 3977 30 1651 29 3151
3135 1.9566860485722442 1.8839448147028588 3.7910764828771564 0 0 0 0.80264043601885593 4 299 33 489
3130 1.7647153210598172 -2.7834535281519801 5.731422566567578 168 185 117 2.5033360943475103 4 1292 5 390
8217 2.6639464516812583 0.94584949417253594 4.3691408922598329 135 107 93 0.24996919758991112 17 5403 30 1607
3121 1.8946180820797116 -0.23001807938609431 4.7480406351113738 187 205 143 1.3799572811170393 4 965 5 333 22 906
8208 2.1445469845213814 -0.3021078930179627 4.8388276483231678 151 125 112 1.4845184639104858 17 7027 30 1170 29 2103
8207 2.6126376666013331 1.3372337423303156 4.2286733793792104 128 100 86 1.8969118087143901 17 2878 30 1148 29 1948
3120 1.9046360937806621 -0.17327473947278296 4.7526275703592029 184 200 138 0.45314801501693147 4 969 5 329
3119 1.9078504572582633 -0.11755732271541773 4.7327072245544795 192 207 148 0.62514821553909505 4 973 5 327
8206 2.5385127384534485 0.49722867900253759 4.53746940190707 160 133 117 0.54303591796701045 17 2875 30 1145 29 2141
8205 3.8484942791854913 0.53020272243432776 4.5104091164443938 109 82 71 1.5927105956338123 17 2520 30 1004 29 806 15 3142
3118 1.9118850238149903 -0.061918395231002475 4.7129151826151778 188 206 146 0.92219414253024334 4 981 5 326
8204 3.7355525012070894 0.92013987078535364 4.3666401499767717 135 107 93 1.232805276416173 17 3331 30 1000 29 1889
3117 1.9120374240364022 -0.0072121666645660124 4.688821028921633 186 201 144 0.61820531264138123 4 986 5 324
8203 3.6117952537309761 0.072789605381651828 4.6812153330228741 150 122 108 1.4260419713078256 17 3325 30 999 29 933
3116 0.37754908068373877 -0.05885943374231898 3.7194765239742438 205 54 85 0.93133493606653062 33 1186 5 323
3115 1.9247075224796759 0.21386128730767728 4.6067884503388798 184 200 138 0.99670643318346697 4 951 5 310
8202 4.2448118520168299 0.6451049342091969 4.4610472940349455 119 91 79 1.8176346980451776 18 1804 30 988 17 2503 29 1878 15 4032
8201 4.1687033950205361 0.80053719604248186 4.4111361478943536 128 100 86 1.4626687098055751 18 2334 30 986 17 2498
3114 1.9277703177152388 0.26962042196882369 4.5870068903792012 196 216 153 0.97147519142348293 4 953 5 307
8200 3.8823276679918526 -1.2413336646991968 5.1628418571517756 104 77 67 0.58570922267569281 17 7145 30 979 19 5732
3113 1.7133762603209037 -0.14792126637525504 4.4577367384893494 188 209 140 0.76362798235992746 5 305 3 2237
8197 2.216280530289235 0.42946559531808065 4.5645413511244755 159 127 112 1.3607478904702541 17 2961 30 964 29 2166
3110 1.8940207236012623 -0.33965636290022938 4.8088617116222254 185 203 143 0.85007012693690476 4 710 5 287 2 4023
3482 0.85651628646312994 1.7784849240453131 4.3947819672805526 85 100 33 1.5515519572587548 22 7254 5 8653
8569 3.6628733724873075 0.42694183600280261 4.5523530901080678 164 140 136 0.044283710747615779 30 625 29 802
8196 3.3174327085681106 1.847129270125476 4.0254735734471021 147 114 97 1.6249409812459188 17 2912 30 963 29 1885
3109 0.72673814472786014 -0.32066042724022881 4.8026823966026226 106 125 62 0.92027714221368884 4 415 5 285
2736 1.8086839768510434 -1.7823269152907872 5.2927208153838121 135 139 89 0.40268895452448361 4 2339 22 5819
7823 5.5463952184774676 1.0267311681789686 2.495129628640945 159 165 167 0.45260190933908362 17 1905 16 1119
2734 -1.7544419111386593 -3.1379635424139609 6.0171097564260538 129 149 80 0.86445138137532362 4 10118 22 5711
7821 -0.24373574356870573 0.022204973889488003 4.1793569901309349 145 88 71 1.1092587689592219 17 1107 16 1040 15 2917
3107 1.8617320051738857 -0.40530849207652209 4.7278393830231575 189 207 149 1.2206591665104047 5 281 3 2355
8194 3.426867685980767 0.22165292651882867 4.6255996538278641 136 108 94 0.98925801258455559 17 2892 30 953 29 754
2733 2.6158608957815899 -3.4960340612954774 5.9876087918572098 152 119 106 0.42178462093298241 4 5165 23 4021
7820 -0.30896464662460388 -0.24627922313262096 4.3435328399828572 127 86 31 1.2262845470226262 19 5803 16 1031
3106 -0.33668979750058881 -0.28038573476880496 4.2616036270295341 56 50 17 1.3900190245599546 4 412 5 279
8193 3.4402735548757999 0.33475915064932965 4.5858233647587037 151 122 108 1.2975492128008885 17 3992 18 3056 30 952 29 1947
3104 -0.4505963303215742 1.2519579814424322 3.9009755432024233 51 103 90 0.87255547505379982 22 332 5 270
8191 4.1845358248566678 -1.0061325960227177 5.0668487245716776 88 58 48 2.3906199693059489 17 3313 19 5691 30 900
2728 0.79164797977799106 1.4412430024673701 4.0565106444985721 107 125 63 0.13040313125517256 33 200 23 1727
7815 -0.55593183441435434 -0.59543040354853072 4.444102745663244 24 54 58 1.2644838451580604 17 1181 16 922
3101 2.0321343044582232 2.008014906042245 3.9152039435281578 112 95 72 0.78897770964244529 22 340 33 209
8188 4.3037633094872367 0.40605836426420461 4.5512452415282363 111 83 71 1.0086644327031424 17 2294 30 774 29 292
2725 -1.7238346043506143 0.37373164994126712 4.5336907310659145 105 125 57 0.70663795632150794 4 5797 22 5392 3 4596 20 2330
7812 4.2463703677270015 1.3549201267111017 1.4707505379737782 175 177 174 0.29816079016643776 17 944 16 849 15 1534
3098 0.27098616443004736 -3.8445735688958358 6.1428090832608238 116 82 67 1.880178836309091 22 1728 32 401 5 204
8185 5.9359279285080726 1.8089911378286279 4.0128000555713079 83 63 54 1.8951958894655061 17 6153 30 684 29 1983
8182 5.4717076404405489 -0.46107747631421203 4.8884048596057008 115 79 66 0.56894291392212226 16 3514 17 4378
3095 1.5009375720348115 -3.7500779301916571 6.1257431876084887 142 114 90 0.068313961622252839 4 273 5 151
3093 -2.137635837299352 0.15295745549468323 4.5940613078267019 132 99 92 0.11581710768811757 4 147 5 134
8180 2.6288904698064472 1.860554588394087 4.022966894750903 146 117 101 0.98401299282395138 16 1300 30 673 29 931
3089 -1.9937625851564778 0.95344147257741141 4.2609735928223476 100 74 58 2.2554240093016693 4 345 5 128
8176 3.0439703763402939 0.11912734653491229 4.6747185366025903 150 122 110 0.78811010893776479 17 1380 18 1314 30 658 29 734
2713 -0.70312031983491874 -3.8149291986746485 6.154580243838967 152 120 109 0.92057545241612326 4 5110 33 4855 22 5153 5 6985 3 7078
7800 4.4259826609279047 1.6592509271933666 1.7915843146758705 22 22 17 0.7845460116235885 17 1340 15 2580
3086 -0.29909411564018717 -1.0888593040478192 4.3096107098496148 255 251 255 0.41949856790960005 4 210 5 112
8173 2.2535927396422437 0.65581411581432969 4.4821209558928299 161 132 116 0.56063071476380066 17 1717 30 636 29 727
3083 -2.0605822516896195 0.45976581458719457 4.4954062624853437 117 83 73 0.78957853913645404 4 79 5 67
8170 4.2053336038070581 0.6320574499323135 4.4697882512485929 163 135 123 1.7623764881085915 18 1801 30 619 17 2500 29 765 15 3181
8164 3.5291014749455223 2.6200727871013707 3.7408744813407093 106 73 58 0.1760356419675542 17 2313 30 596 29 360
3077 -1.2414372625027348 -3.56975631173942 5.9821520519306546 0 0 0 1.9138242657852313 22 83 33 3719
3076 -0.38675505612933447 0.78033752022813985 3.8458336851635266 110 203 226 0.20735819470916422 5 26 3 40
8163 3.5198546417810244 0.44034714960483218 4.5503245505739418 150 121 107 0.91907775392029079 17 2978 18 2321 30 581 29 796
3071 -1.8147608693560533 0.93663682406094284 4.3264999207430179 65 76 50 0.52574803831602346 4 5988 33 3380 22 8198
8158 2.215509360469055 0.68183281171102406 4.475188257852853 136 107 93 1.0628863254671803 17 1238 30 459 29 324
3070 -1.6786065161167689 1.2534225224169797 4.2032280088025979 45 57 29 0.53441768732487216 4 2595 20 1148 22 2937 33 2114 19 994
8157 4.8743733974291938 1.0214033283106225 4.3171224639056121 136 108 96 1.1049834685525075 17 1353 30 397 29 361
2696 -0.059847632005498204 -3.8005587920154933 6.1450178246017053 161 124 108 0.27982887315953003 4 5142 33 3696 22 5039
7783 -0.53088905951989163 -0.5126371130020243 4.6471487532264044 21 56 75 3.6701135188445488 17 1048 15 2683
3069 -1.6727593953371238 1.3630796172848285 4.1604282354744901 46 57 30 0.90359930406106415 4 2948 20 1057 22 4395 33 1767 19 1021
8156 4.5809555843357668 2.6291380804778965 3.7272909763015409 112 84 72 1.0599419916045301 17 980 30 393 29 1952 16 767
8152 3.8989988561179776 0.51911697578167526 4.5218436304207676 167 145 132 1.2226859614691092 18 1755 30 351 29 290
3065 0.8510908326542741 1.3457227239409175 4.1613841914317815 98 118 55 0.091633179529721026 4 5282 22 8301
2690 1.0646793308513092 -3.8669152010649182 6.1564815762984528 172 133 116 0.54838589378547076 4 5095 33 5188 22 5012
7777 7.5702580742355119 1.0072215587579401 2.6501997028404398 102 101 99 0.49847271920725839 17 1347 16 548
3063 0.46488507699396497 0.91268220195077887 3.2946769315308897 198 57 89 0.039054331657771835 4 12664 22 8166
8150 3.2785787513697904 1.567492220295283 4.1392310367306777 103 68 49 1.3120141064388529 17 418 30 254 29 218
3055 0.29900414284472876 1.9418502161263247 3.9545638107240348 97 109 43 2.5314079393002125 3 5056 20 3994
8142 3.2199106876992225 0.47726193689137358 4.5504161291898297 158 130 116 0.81890807205215499 17 371 18 504 30 187 29 138
3053 -0.4205085019482428 -1.0562669263564877 4.4480992620244661 132 143 77 0.95923281910454827 22 7200 5 1121
8140 4.7613039122694119 0.26572724475043635 4.6055509447861613 111 78 63 1.836531167550189 18 933 30 131 17 979
3052 -2.0106376214559947 -1.312180615577683 5.4305002729122087 182 200 138 1.9488417652441072 4 6344 22 7198
8139 3.8123222854667076 0.45152208339378935 4.5340992677875418 132 104 92 1.6675537881756204 17 790 30 125 29 154
2678 1.6055591746725069 -3.6908352904079051 6.3460900181240971 143 165 93 0.92287134165666274 4 10947 22 4742
7765 4.4490704594178148 1.1461695849341833 2.2347677274413407 175 176 171 1.7466886395610814 17 291 16 142 15 139
3051 -0.57160689200312476 -0.5753374499058449 3.0301016492867361 210 222 153 1.7741049818407306 22 7107 5 925 4 1913
8138 2.2180944801692162 0.10052523347479647 4.7022450402871412 111 81 70 0.64971085986377419 17 10388 30 106 29 99
3049 -1.7853817713011444 -0.97340401514725794 5.020447453253583 200 220 151 0.70745137034648309 4 6310 22 7029
3048 2.1351615684195009 -2.0126619217569313 5.4660906709674197 157 130 123 0.74647074379889033 4 7578 22 6677 33 10095
3046 -1.8383261784887934 -1.806856351445582 5.3320276364772665 121 140 74 0.68211737400775707 4 8355 22 6636 23 12644
3045 0.059705409294114574 -0.77270707875492428 2.92158337516216 228 202 117 0.61711622458988691 4 3524 22 6614
8129 -0.4868873028306317 -0.42604445653134537 4.39421678617175 51 107 105 0.54346987908455224 16 10943 15 8199
3042 -0.40025967482436359 0.20240718599462496 3.2084035011657157 166 182 120 0.26581385567721411 4 2142 22 6457
3041 -0.41282617429572388 -0.14033220136597332 5.0072874942312158 69 72 17 0.12986479883126867 4 6898 22 6433
3030 -0.46925870653412766 -0.18483881323588966 4.2103956301428553 50 64 11 0.95343157051388894 4 14301 22 6040
8112 5.7955355824478074 1.5406454447170308 4.1177517932757421 86 60 45 0.482553889399299 17 4311 30 5456
3025 2.458862444966031 -3.2474031898268172 5.8977662011779213 172 143 132 0.34978255706982242 4 4907 22 5820
3018 -1.9382840973339805 -3.4561336202037021 5.9425102073435543 164 179 136 0.58794824765608789 4 10642 22 5028 5 3190
8105 3.4504371236423075 1.5450487228551923 4.135823773178938 122 84 61 1.3795835326413832 17 7496 29 3723 30 1647 15 5997
3016 -1.7597353294531159 -2.788860953074046 5.2179132271814916 125 144 78 1.3774780150465817 32 4475 22 4832
3014 -1.9179862052801746 -3.083711017160542 5.7858939080876084 130 149 85 1.2144185364452158 4 10095 22 4702 5 1080
3008 -1.8786392508482357 -3.5381806431798859 5.9817271703509629 165 153 136 1.0326405763804847 33 1786 22 3481 3 2643
7722 0.51105772547316475 -0.25454985246762768 4.2817351427494179 147 106 42 0.52128540885570196 6 4125 8 5993 9 5621
2635 -1.94224195604407 -1.8894383855217953 5.3626599189410324 181 200 136 1.007649336091603 4 1450 22 3890 3 2487 23 6452
2632 -2.019358591215946 -1.7169140564854981 5.3097658905619181 138 159 92 1.6415316434679594 4 4344 22 3850 23 6208
7719 0.067811852879309117 -0.47119883633314219 6.5754020786619307 167 190 110 0.24498463609906584 6 5064 8 5904
3005 -0.43165769215417371 -3.6364048495006789 6.0387124416263394 144 123 97 1.7825352034323514 4 1538 22 3343 5 436 3 7064
2631 2.3276687282631383 -2.3112310050690454 5.5745757234505904 177 152 148 0.98449071947207256 32 5264 22 3839 3 2442 23 6514
